x,y,z,intensity
-8.53,4.0772,-0.1255,0.10598
-3.5304,-7.3995,0.1044,0.17039
-1.8576,-4.1401,0.0921,0.42214
-3.5333,6.2145,-0.284,0.16179
-1.1072,-8.1078,0.1435,0.09669
0.4446,-4.7966,-0.1514,0.33332
2.6904,-1.2541,0.114,0.52553
-6.4134,-1.5894,0.1189,0.17374
0.5847,-5.0642,-0.1173,0.16893
2.8871,-1.5957,0.3217,0.29431
1.6983,1.4377,-1.3269,0.37345
-1.6215,-3.4704,-0.8344,0.53023
0.8738,6.117,-0.0651,0.20754
-6.6055,-3.1402,0.1859,0.18746
6.1384,-3.0157,0.5092,0.22311
4.0967,3.2542,0.1092,0.34531
-3.6405,2.1977,-0.0651,0.31132
-2.067,-2.8369,-1.1637,0.52569
2.7301,5.4067,-0.757,0.1954
-6.6595,-3.9052,-0.3318,0.13706
7.0547,-0.3454,-0.1697,0.14539
-6.1007,6.0604,-0.2728,0.14661
-5.8156,-0.5116,0.1309,0.23534
-2.3282,-2.1664,0.0265,0.49502
4.1833,0.8611,0.7297,0.35873
-6.5416,-4.0569,-0.0051,0.1298
0.8077,-5.0974,0.4319,0.26045
-5.5233,6.5875,-0.2517,0.1945
-7.0599,-2.4154,0.4235,0.15258
-2.6479,-1.3597,0.5023,0.54095
-0.2713,7.8038,-0.1784,0.19499
1.4031,3.1153,-0.5326,0.40462
7.8919,-0.7198,-0.0021,0.18955
-3.4883,6.2053,-0.0645,0.19088
-3.0578,3.4239,-0.0681,0.22124
-0.1183,-5.1378,-0.476,0.27871
-6.344,4.8275,-0.3457,0.12399
-4.8748,1.4801,0.4093,0.19623
-2.1774,-2.5624,0.0475,0.2359
2.7656,5.4291,-0.3976,0.14648
-0.482,-8.6892,-0.0709,0.08758
8.2432,2.0017,-0.1081,0.07666
2.3951,6.9297,0.397,0.09787
-1.4505,3.5414,-0.2477,0.50902
7.1323,-1.8663,-0.3065,0.12947
2.1058,-1.5857,0.1344,0.32305
1.6647,0.6172,-1.3065,0.50862
7.5144,6.1874,0.1946,0.064
3.3681,-1.6515,0.1919,0.32932
-5.7121,-0.4318,0.1288,0.17583
6.636,5.8539,0.2528,0.09808
0.3072,7.3922,0.3798,0.14657
-0.4607,-9.1656,-0.0392,0.14869
7.904,6.1413,0.0735,0.10662
0.0212,-1.0822,-0.1064,0.13939
-4.8824,-5.5578,0.1692,0.17964
0.9909,-4.657,-0.2554,0.27847
2.1582,4.4326,0.3022,0.2707
-4.7994,-5.9585,0.0301,0.11769
3.8923,-4.6639,-0.0371,0.13317
3.8694,2.6217,-0.2581,0.20584
-2.023,3.3121,0.091,0.29448
-1.4257,-0.1553,1.0922,0.89861
0.9983,-2.5951,0.8308,0.454
-0.487,2.6393,-1.1346,0.66572
-2.1827,-3.2072,0.8282,0.42073
3.3502,4.6849,0.3779,0.19829
0.4198,0.9447,1.0751,0.99406
10.38,0.5827,0.4158,0.10104
3.8919,0.6786,-0.1276,0.37795
0.0685,1.7006,0.2972,0.84019
6.9183,7.1967,0.0325,0.08764
2.7305,-1.5936,0.1523,0.37805
1.1936,1.5231,0.4716,0.76702
0.7654,-5.4113,0.3819,0.21713
-0.0326,-0.6768,-0.7738,0.98064
-5.3743,-4.9434,0.0968,0.21478
9.6195,1.8419,0.3404,0.14098
-3.8884,6.9111,0.2136,0.11526
-1.5984,-8.4282,0.0089,0.0888
7.985,6.0109,0.5857,0.13329
4.1865,1.2898,0.276,0.29751
-5.1802,-0.4904,-0.4175,0.25616
-1.9524,-3.9397,0.5304,0.23934
4.3098,0.7755,0.3545,0.3251
1.1488,1.2129,-1.054,0.7928
-1.2403,-0.068,0.5609,0.91851
-4.4565,7.3401,-0.2627,0.12458
-0.4233,3.1557,-0.3502,0.45948
7.9417,-2.0701,0.3606,0.1568
-7.9116,3.9176,-0.0277,0.13245
-6.2633,-1.8351,0.0384,0.17373
8.8438,-0.8518,-0.1017,0.11277
-7.7779,4.74,-0.1286,0.09855
-5.4499,1.227,0.7793,0.24141
-1.8961,-2.5414,0.2233,0.61741
3.7304,1.4501,0.3949,0.51032
0.0088,2.9348,-0.3316,0.38447
-1.5082,0.4727,-0.0201,0.87307
-0.0142,7.2692,-0.4111,0.19893
1.7963,-9.8852,-0.2825,0.13199
7.1977,-2.1552,-0.2759,0.2487
1.2259,-2.0373,0.4512,0.6178
-0.9538,-8.3773,-0.1476,0.12487
6.6227,-2.1483,-0.1503,0.16435
-4.7944,6.8008,-0.2485,0.16595
-2.8119,2.846,-0.2485,0.39933
6.7024,-1.9964,0.0167,0.16799
-7.0761,4.1878,-0.078,0.10462
-0.6946,3.7781,-0.3498,0.33864
-2.0236,-0.033,0.9122,0.83047
4.0097,2.0135,0.0152,0.33469
0.7492,0.3089,1.3453,0.95144
6.5501,5.6389,-0.0601,0.11722
-9.0127,3.7662,-0.0758,0.1266
-4.9588,1.63,-0.1212,0.27625
-1.742,0.8201,1.3812,0.75046
-2.094,7.2324,-0.5186,0.14918
-2.9937,-6.2756,-0.038,0.09867
3.1184,-5.1283,0.5615,0.20267
3.4515,0.9886,0.2126,0.41556
-6.1588,0.3793,0.133,0.19465
4.2846,-4.6879,0.0166,0.07527
-0.0343,6.2453,0.3286,0.19191
0.0469,3.0997,-0.0921,0.60441
6.5756,7.1195,-0.4169,0.10402
-2.5412,7.446,-0.445,0.17176
-1.3751,4.0978,-1.0984,0.47184
8.3943,0.6739,-0.1466,0.12076
-0.3481,7.1977,0.3123,0.10959
-5.477,0.9465,-0.3548,0.2646
-2.3463,-1.838,0.2374,0.49159
-9.677,0.5422,-0.0708,0.05792
-4.6953,2.1349,-0.1545,0.25754
9.2837,3.2008,-0.0946,0.10576
-4.233,4.8969,-0.1053,0.15371
-6.0724,-1.5513,-0.7103,0.17704
6.5442,-3.5932,0.0251,0.14336
-3.9993,6.4302,0.2021,0.1602
-1.9594,-8.7949,-0.3243,0.14671
8.87,2.1953,-0.0741,0.07018
3.871,2.7854,0.2756,0.30778
1.1474,0.3236,-1.5836,1.00092
-1.7518,-0.285,2.5547,0.51115
4.2517,1.7477,0.2311,0.24103
-2.6494,-8.4283,-0.2217,0.08156
4.8,7.9075,-0.0144,0.06125
-4.4913,7.6399,0.3963,0.10562
-3.8165,2.8163,-0.2403,0.30764
-1.9234,-2.2987,0.2342,0.39767
1.0176,6.6057,0.0677,0.1225
-7.7379,-1.7302,-0.3888,0.21098
7.0654,-2.511,-0.1251,0.0817
4.0835,0.3511,0.2428,0.21986
-5.0274,-5.7714,0.0328,0.11592
8.6877,4.8618,0.0425,0.16517
0.9069,-0.5207,0.9195,0.79054
3.2544,-9.2829,0.1235,0.07856
5.0692,-4.713,-0.3967,0.16579
-8.2177,2.9373,0.5254,0.0949
-0.0662,3.1881,0.8206,0.35033
7.3208,-2.3905,-0.0777,0.09277
-2.5129,7.4504,-0.1052,0.14546
-4.7206,-5.5977,0.2142,0.1407
8.1846,-0.339,-0.3225,0.10448
3.4407,-1.0941,1.1271,0.39394
-1.4918,2.5325,0.5359,0.54531
-2.2031,-0.0105,0.7348,0.54395
3.8446,4.061,-0.77,0.12055
-4.5214,-6.717,-0.2154,0.13673
-0.9899,-4.8063,-0.4563,0.25058
-4.6932,6.5154,-0.1205,0.10984
-5.7853,-2.7071,0.4164,0.19314
-2.5004,-3.9222,0.3534,0.33178
0.647,6.5125,-0.1343,0.10248
-3.7736,-7.1357,0.0476,0.12478
6.9289,-2.6242,0.0189,0.21968
2.1675,5.8957,0.1235,0.25597
-6.4365,-4.0142,0.1828,0.15932
-2.1506,-1.5423,0.0751,0.36215
0.0312,-2.1133,1.6746,0.58062
0.7673,-0.1653,0.9421,1.05058
-2.9239,-2.9493,0.5478,0.19249
-1.4081,7.6536,-0.2621,0.12685
-1.9881,3.6812,0.4107,0.35185
2.9214,-4.854,-0.4616,0.29962
-9.0607,2.8913,0.1594,0.11097
1.8445,1.6131,1.6484,0.50224
-2.881,0.2009,-0.4959,0.16408
0.6496,7.4904,-0.1682,0.13642
-5.8987,-2.3345,-0.187,0.20227
8.031,4.8073,-0.3001,0.06582
-7.8155,4.3499,-0.5678,0.07722
1.4902,-9.1903,0.286,0.08085
-1.5626,-3.5502,0.1907,0.32218
2.8285,-1.3455,0.5914,0.52158
-3.7568,-8.2244,-0.3107,0.09323
3.6894,-6.0573,0.1654,0.21529
2.4327,-1.8963,-0.0521,0.6516
-2.3105,3.1106,0.5253,0.42558
8.8334,2.5018,0.2538,0.11341
-4.1956,6.8927,-0.2879,0.08969
-5.499,-3.6244,-0.0352,0.21574
-2.1144,-4.0392,-0.1165,0.56682
2.4611,-1.6669,0.5293,0.50353
4.6861,-9.0703,-0.1162,0.10509
8.5147,3.6017,-0.1195,0.10816
-3.0144,6.7121,-0.1831,0.19398
-2.7698,-7.5351,-0.1565,0.14843
3.7567,-5.5114,-0.145,0.17357
2.1957,-1.2876,0.8559,0.21563
-3.2993,1.578,0.8177,0.54271
6.0708,7.041,-0.0777,0.14514
4.2546,2.9514,0.2016,0.23236
-6.6653,-1.7373,-0.6885,0.16279
-2.9041,-1.629,-0.7397,0.44689
4.2696,3.4158,-0.1034,0.11283
-4.1021,-7.5534,0.1131,0.1318
0.3059,-5.7069,0.2958,0.23848
1.6302,5.6147,-0.1714,0.15888
-7.9656,-0.7226,-0.3117,0.13554
8.4735,5.3359,0.3312,0.08038
2.642,6.0515,-0.0808,0.15873
2.0245,1.9415,-0.1641,0.63016
7.9648,-0.433,0.4789,0.14901
-2.5349,6.9983,-0.014,0.15469
1.1422,2.31,0.074,0.45609
7.7555,-0.5769,-0.2257,0.16817
-1.4324,8.4824,0.0696,0.15421
-0.003,-9.1456,-0.1627,0.14279
8.6154,2.5324,-0.3003,0.10007
-7.4062,5.5555,-0.1924,0.14782
-6.048,-2.034,-0.0015,0.23404
1.8684,-5.0395,-0.2302,0.1357
3.3761,-0.8972,-2.1837,0.26904
-5.5625,2.0556,0.5119,0.33866
-1.6188,-2.0113,-0.1655,0.43742
4.994,2.8925,0.3048,0.28052
-7.0034,-1.344,-0.0146,0.20556
7.5916,4.3684,0.0916,0.09773
-5.8709,7.6098,-0.0082,0.16563
-3.4361,-8.1447,-0.4673,0.13169
7.5091,-1.9806,-0.3346,0.19174
-6.8856,4.9754,-0.6428,0.0763
-8.3016,-1.1396,-0.4544,0.19308
1.8277,-4.4489,0.4772,0.36999
0.6914,6.5363,-0.023,0.16908
0.6393,0.2445,-0.5746,0.68448
5.2202,7.91,0.2443,0.07725
-7.2777,5.5283,0.2418,0.13911
-0.1655,3.119,1.6635,0.4331
7.8757,2.5643,0.4424,0.14849
-7.5925,4.5014,-0.0791,0.10011
-4.137,-6.6566,0.0145,0.16332
1.6595,-5.5895,0.5138,0.28311
-4.6424,7.4527,0.1931,0.12879
-5.042,1.1166,0.1312,0.2422
5.3971,-2.4355,0.4901,0.21664
0.9981,6.7593,0.6531,0.14805
-5.418,1.2542,0.1192,0.40976
3.4855,-5.187,-0.9986,0.27185
3.6565,5.0458,0.1686,0.23962
-3.7576,-8.6632,-0.0778,0.08209
-0.974,0.2942,0.6742,0.70337
-6.622,5.5575,0.1218,0.08357
-5.1503,-4.5059,-0.096,0.11576
-1.5909,-4.2206,-0.4246,0.24064
-0.3967,-2.5653,-0.8118,0.58822
-5.6466,0.8198,0.5052,0.23114
-0.9643,0.1032,2.0264,0.70698
3.3708,-0.3133,0.6265,0.53393
-0.601,3.6597,0.1972,0.37591
6.0786,-2.4319,-0.2312,0.22383
3.9875,-0.5452,0.6459,0.26263
-5.5506,2.6915,-0.4579,0.29221
7.8266,4.0099,-0.0844,0.13905
4.3936,2.9385,-0.2678,0.23947
0.296,1.5605,-1.4525,0.79733
4.8529,-5.1089,-0.0999,0.19722
2.4421,-1.6774,0.296,0.66268
-4.6234,0.6316,0.0747,0.25136
8.3131,3.9442,0.0297,0.13408
1.9425,5.4207,-0.392,0.23284
-3.0352,2.7933,-0.3125,0.30669
8.5148,2.6868,0.2171,0.10011
1.6133,6.5081,-0.0987,0.1377
-2.1104,-8.7505,0.1532,0.11517
1.4053,-4.7238,0.1521,0.262
-5.3926,6.6821,0.0817,0.12488
-6.1392,-1.1228,0.2371,0.1673
4.8434,-3.8223,-0.0714,0.25095
1.1115,-1.8182,-0.5649,0.32606
-3.8565,2.3411,0.2069,0.3669
5.8507,-3.0339,-0.1461,0.20026
-1.2098,7.2572,0.6139,0.20631
0.3487,0.2942,-0.2285,0.70847
-1.8157,0.3861,-0.6853,0.56102
4.4246,0.2462,-0.2923,0.21309
-4.4904,1.7461,-0.2113,0.37551
2.0674,-5.6018,0.3791,0.19692
3.7279,3.549,0.4463,0.27527
-2.1427,-7.5401,-0.1865,0.12928
4.1752,-5.48,0.0296,0.2557
4.109,4.2094,0.2695,0.19259
-5.1728,1.8948,-0.0346,0.2753
6.6302,5.4372,0.0461,0.11578
1.9604,-2.3941,-0.0147,0.13903
2.2482,2.0402,-0.055,0.39549
5.5155,-4.3152,0.3881,0.22017
4.2704,-1.5587,-0.5421,0.36643
0.6147,2.6873,-0.2505,0.2643
-2.7849,-2.7544,0.5873,0.41461
-8.5924,3.546,-0.2612,0.07059
-5.584,-4.6031,-0.0007,0.14605
0.5984,-5.5277,-0.4184,0.3814
0.5384,7.9895,-0.0033,0.15051
-6.6113,-2.4449,0.2317,0.1418
-2.3448,-0.0288,-1.3029,0.59548
-3.8806,6.8911,0.3524,0.13257
-7.0109,-5.3274,0.3448,0.22932
6.3472,-2.6008,-0.8002,0.16231
4.4065,-0.0427,1.0117,0.43675
-0.4875,3.2461,-0.1226,0.18111
-3.0513,-0.1606,1.3224,0.37915
3.1425,-1.057,0.918,0.63378
-2.7945,3.0298,-0.2401,0.33861
6.3389,8.8388,-0.2356,0.09312
1.9467,-1.1141,0.1351,0.33871
-5.9508,-2.2421,-0.1956,0.19493
7.4,-2.0342,0.0792,0.18754
-2.5075,6.2704,0.3563,0.13872
-4.1681,1.7289,-0.0983,0.30926
1.0449,-4.7037,-0.3103,0.32109
-6.1354,5.3075,-0.2606,0.0896
0.4664,-9.7066,-0.1753,0.12843
7.9219,-0.5024,-0.1471,0.09746
4.9387,2.5203,-0.672,0.24818
1.5028,2.266,-0.1957,0.33043
-2.89,-1.6933,-1.0271,0.58717
3.4181,4.4221,-0.4456,0.19304
-0.43,3.4689,0.2346,0.37588
8.7614,2.5558,0.1448,0.05166
-3.0723,7.535,0.3879,0.11
-6.4079,-2.2966,0.1323,0.19056
-0.5725,1.0946,-1.0284,0.76731
1.9734,6.8065,0.045,0.18159
0.6169,0.7578,-0.5627,0.37985
-0.1502,-3.8844,0.3375,0.44402
2.6788,5.9174,0.0351,0.17441
-1.5093,-8.5541,-0.2214,0.0658
-1.1234,-4.0843,-0.5711,0.35317
-3.8397,6.7575,-0.2353,0.14674
1.3407,0.5353,1.284,0.59642
7.4075,5.2966,-0.148,0.0709
3.809,2.7975,-1.0901,0.33368
-6.4963,0.2835,0.3166,0.1838
5.8472,-4.4453,0.419,0.14981
0.9965,7.2449,0.1766,0.14738
0.1557,1.5537,1.0359,0.72506
1.7967,-5.8376,-0.0719,0.29319
-1.2411,7.5244,0.0796,0.19741
-0.4803,-8.247,0.1928,0.09891
6.7633,-3.9102,-0.2149,0.12512
0.6248,-0.9851,-0.6025,0.54175
-2.7626,3.2942,-0.7391,0.30278
7.988,4.3626,0.5861,0.14644
3.6501,-0.6408,-0.1717,0.25595
-6.2361,-0.6301,0.3528,0.15068
7.6825,-0.3251,0.1948,0.19894
3.83,-1.083,0.4256,0.24794
-1.9637,3.5168,0.5413,0.35007
7.2232,-1.4111,-0.1438,0.12573
1.8932,-2.0442,1.2456,0.34694
-5.8691,-3.152,0.1615,0.1893
-0.8444,-4.8187,0.3188,0.36504
3.209,4.9644,0.0501,0.31057
1.005,0.4357,1.0095,0.77726
7.6666,1.6772,-0.1046,0.15918
4.0038,2.7283,-0.4158,0.22325
-0.5971,-8.4126,0.1433,0.10338
4.2046,-4.9124,0.1752,0.24253
-7.3823,5.3704,-0.1629,0.10104
-0.2569,-8.5517,-0.0959,0.11685
7.487,-0.0792,-0.3914,0.16129
0.8098,-1.0949,0.2972,0.7317
-4.7647,-5.9732,-0.0593,0.08411
-2.1456,-1.5809,0.4946,0.40075
4.1587,2.8455,0.3733,0.23258
-2.9647,3.3873,-0.0597,0.37607
2.3972,-5.4464,0.021,0.22791
0.062,-0.4524,-0.4449,0.18583
-5.5342,-5.9361,-0.3635,0.16704
-0.702,0.0256,0.2261,0.85399
1.9911,5.3452,0.2612,0.16832
-5.6783,0.7342,0.231,0.17953
0.1996,-4.7492,0.3624,0.22427
4.601,3.1303,-0.2442,0.18533
0.1813,0.0866,-1.9819,0.87509
-2.6785,-2.8794,0.481,0.33653
3.731,3.566,0.5309,0.20063
-0.0078,-8.0449,-0.177,0.04827
8.0941,0.2359,-0.3218,0.1223
3.3248,5.4949,0.548,0.22857
-5.3256,-6.0526,0.2362,0.16297
-2.6227,-1.7187,-0.2218,0.33849
-7.2843,4.6415,-0.3138,0.15614
2.2405,-9.2137,-0.1807,0.10849
6.7729,-3.3086,-0.1003,0.21463
-1.7221,6.9869,0.1655,0.18613
0.6873,0.8259,0.3533,0.48951
0.2203,-4.729,-0.1223,0.15951
-5.7155,6.7622,0.3262,0.11897
-5.6757,-4.0219,-0.0857,0.20402
8.3732,2.3853,0.073,0.09475
-0.1492,-1.0641,1.2692,0.82099
-5.3679,1.0157,0.01,0.23628
8.0722,1.6425,-0.315,0.14187
-9.3126,0.9806,0.4595,0.15082
-0.199,3.5709,-0.9104,0.44604
7.0239,7.4092,-0.0312,0.10533
-1.0785,6.8436,-0.2185,0.23824
-5.6043,0.1998,-0.4269,0.23659
-1.7274,-3.4197,0.8177,0.20216
1.6526,6.1059,-0.1105,0.07784
1.3521,0.9292,-1.0125,0.75284
7.2843,2.5144,-0.0813,0.07415
3.1271,-1.0722,0.4248,0.407
-5.4959,-4.6129,0.7203,0.17789
-3.5939,-0.4954,-0.1767,0.38204
1.1067,6.6422,-0.1511,0.14909
-4.9667,-0.2194,-0.2913,0.26704
-0.4993,-5.8625,-0.5189,0.236
3.7472,2.2306,0.0675,0.34476
0.3296,3.859,-0.2955,0.394
4.9887,-4.6899,0.4832,0.1731
4.9287,1.5045,0.6741,0.44807
-5.2552,-7.1488,-0.3973,0.15365
-2.1439,-3.3534,-0.7378,0.46491
-0.6517,-0.8862,-0.4857,0.69645
0.3228,0.721,-2.7659,0.91816
-0.3304,-5.3468,-0.5358,0.38487
-2.477,7.3683,-0.1879,0.18381
2.748,-8.5825,0.4714,0.08057
-0.7666,0.8508,1.7811,1.25271
4.9878,2.1045,0.2242,0.30052
-5.9104,0.5473,-0.102,0.247
5.3856,-4.1687,-0.0721,0.13058
2.9641,3.6641,0.4729,0.39992
-5.8903,0.6481,-0.2196,0.20505
-1.5874,-0.0917,0.6224,0.78105
-2.5055,6.4832,-0.3301,0.15327
-1.4559,3.4481,-0.3891,0.30628
6.1881,-3.724,0.3762,0.14685
1.9084,5.2522,-0.2374,0.13563
-6.4838,-0.7284,-0.1319,0.22625
-2.5823,-1.5015,-0.4254,0.34863
-2.9946,7.3639,0.0372,0.08504
0.1908,-8.472,0.1781,0.1103
-2.4945,0.5171,-0.4883,0.52444
-0.0463,7.1589,0.3034,0.07304
-5.9583,-0.0156,0.4128,0.18117
2.4601,-5.9883,-0.0779,0.21183
-7.9347,4.9179,-0.0303,0.03867
-4.1935,-5.8267,-0.2937,0.18134
0.6954,-5.262,-0.1059,0.172
0.9331,6.2114,0.4387,0.23448
-4.6942,2.4379,0.2904,0.24404
6.5382,-1.4108,-0.4363,0.19488
4.6733,1.0585,-0.9421,0.18671
0.9856,2.5731,-0.5712,0.78522
7.5394,4.3678,-0.0301,0.10364
-6.9055,4.405,-0.2213,0.0861
2.1814,0.9796,-1.2493,0.50751
7.4579,0.7107,0.0225,0.13745
0.395,-0.7581,-0.5707,0.86693
-4.3903,-7.7967,-0.4919,0.17078
-0.0157,-4.6366,0.3174,0.32165
0.4808,-1.4157,0.265,0.71398
-4.4622,1.4908,0.1127,0.31824
5.7794,7.4783,-0.0991,0.10305
3.6321,2.299,-0.8331,0.14966
-3.082,-7.0927,0.016,0.13502
-1.9811,-0.2302,-0.9683,0.51354
3.4816,3.7232,0.0227,0.36036
-6.2077,-0.7093,-0.0694,0.21696
8.1445,5.6393,-0.0654,0.10945
3.0055,5.519,0.2588,0.17293
-4.7909,-5.5845,-0.1546,0.1817
1.4784,-5.1725,0.1125,0.1759
4.8594,0.3938,0.4826,0.54062
-1.5458,4.1376,0.436,0.25096
7.5366,1.8961,-0.0258,0.12828
2.2173,6.2847,-0.0152,0.25327
0.7568,-8.6218,-0.0666,0.14175
0.1272,-5.6295,0.0314,0.31819
-1.5415,6.8305,-0.2686,0.15541
-3.3978,-6.7397,-0.1406,0.14186
7.68,-2.1628,-0.0119,0.13406
2.2575,6.0483,0.0588,0.2507
-4.5306,2.2365,-0.0746,0.24739
-2.3397,-0.8481,-0.875,0.62775
-2.1125,7.6129,-0.1748,0.09091
-2.2877,3.7576,0.1868,0.24101
3.0848,-5.4155,0.2465,0.16218
3.8646,3.7762,0.1266,0.36202
-2.0647,-8.3589,0.5131,0.14496
0.0862,-5.0654,-0.3369,0.37529
-4.0494,7.3817,0.2296,0.13522
-2.3899,-7.1667,0.1046,0.1174
-1.5389,-3.9345,0.2297,0.32982
-2.7232,6.8705,-0.2577,0.21796
-3.4209,3.1999,-0.8828,0.36775
8.6536,2.4407,0.137,0.09685
-1.8027,7.3504,-0.2395,0.14417
-5.52,0.8114,0.1935,0.22636
8.0347,-2.1343,-0.2495,0.1755
3.5331,-1.006,-0.6491,0.45739
-2.8187,2.701,0.1695,0.37315
-2.9572,-3.5553,-1.0585,0.28171
1.3635,-2.4457,1.7335,0.77749
-3.7107,2.4984,-0.8655,0.2632
-2.512,-0.4028,-0.0832,0.53152
-3.2899,6.8622,0.048,0.17403
0.6495,0.9473,1.0114,0.92277
8.6253,1.7817,-0.1348,0.06957
3.887,4.4042,0.056,0.32635
-5.6391,-0.4432,0.592,0.25538
-3.07,-1.8936,-0.3325,0.37806
0.6675,-1.1343,-1.4432,0.59243
-6.2563,-3.7673,0.0948,0.18689
-2.1056,0.1316,-0.3424,0.32236
-0.9168,6.9431,-0.084,0.15152
1.1695,1.0234,-0.7079,0.49895
-2.28,0.4776,0.8195,0.60542
2.0219,-1.686,-0.4015,0.53775
1.3173,-8.6014,-0.0315,0.06046
-0.9761,-4.5755,0.3617,0.36277
4.4953,2.3773,0.5068,0.36734
-4.6424,-6.1877,-0.6092,0.11941
6.6145,-2.6004,0.16,0.22459
1.3197,-1.422,0.3434,0.75282
-2.5226,3.2711,0.5577,0.23782
8.5532,1.9107,0.2968,0.08945
1.5032,-1.8619,-0.4035,0.51804
-5.2125,0.4576,-0.2306,0.25734
9.33,1.6811,-0.2309,0.12596
1.3875,-1.1752,-0.5882,0.26952
-2.7943,4.0311,-0.1425,0.38484
-2.4646,-3.2906,0.5123,0.422
-9.3601,4.423,0.2209,0.07585
-0.4923,3.4769,-1.7252,0.70861
8.9859,2.4996,0.4525,0.10529
-0.3412,-0.4881,-0.3333,0.8439
-4.4006,3.3415,-0.3784,0.344
0.9101,-5.7801,0.4774,0.20242
-0.546,7.077,0.2262,0.19838
1.6262,0.6246,-1.5663,0.81267
-2.4522,-1.0199,0.4351,0.67498
4.4919,1.1417,0.1664,0.3105
0.3102,3.3755,-0.5782,0.52059
-1.1953,0.0102,0.1308,1.10822
-0.3064,7.0855,0.4149,0.1588
-5.1102,0.4237,-1.3244,0.3424
-2.0279,-4.2967,0.9604,0.4009
1.2765,-1.4236,1.2568,0.90645
-5.231,0.791,-0.0018,0.32303
3.0176,-5.4679,-0.3174,0.20904
-7.052,4.6501,-0.0429,0.11217
-5.363,-4.752,-0.4419,0.15662
-2.4449,-1.3128,-0.2803,0.44264
-4.6799,7.0363,0.1919,0.0957
-0.0099,2.4902,0.5999,0.40116
7.4227,6.3387,-0.0123,0.1353
4.069,2.9666,0.2002,0.29198
-6.0361,-1.8481,0.6388,0.23465
-1.4495,-4.4307,0.1432,0.31618
0.5193,6.0895,-0.0283,0.28607
-2.9079,3.1307,1.1496,0.43039
-0.4607,1.1204,0.3716,0.93256
3.2768,5.0373,0.167,0.18662
0.8626,3.2927,0.0861,0.53908
-0.8406,0.3041,0.2705,0.63209
1.7231,6.6422,0.0652,0.23327
-5.6761,-0.6717,-0.7321,0.22321
7.6188,0.8195,-0.0215,0.12449
2.7599,6.6316,-0.7125,0.25685
-4.9231,1.5425,-0.1713,0.24114
5.322,-3.5443,0.0109,0.17637
0.4795,7.5627,0.1481,0.14423
-2.2516,4.1288,0.132,0.17564
-1.5568,0.3269,1.1429,0.41986
-8.6897,2.8796,-0.1936,0.11452
-6.525,-0.9775,-0.0419,0.10551
-1.937,-0.4656,-0.881,1.01243
1.8328,4.7313,-0.7005,0.29611
-3.5679,2.9532,-0.1239,0.19707
8.113,0.3705,0.3875,0.08461
3.5809,5.1392,-0.2593,0.21703
-6.9737,-0.3087,-0.1162,0.22003
8.2708,-0.1031,0.0177,0.08447
-1.6193,6.3665,-0.0042,0.10178
-2.2173,-8.3361,0.2643,0.09717
1.2627,-4.9861,0.186,0.28605
-3.9652,7.1711,0.527,0.12547
-6.6558,-0.8927,-0.313,0.24452
2.6685,-5.388,0.1701,0.16156
4.7486,3.0848,0.3117,0.16425
0.3066,-8.6563,0.2663,0.05999
8.8137,3.4963,0.2479,0.10925
-0.1462,-0.2273,-2.4465,0.7685
-6.1541,-3.8161,0.0125,0.14802
-2.3669,-4.5977,0.0051,0.14213
3.5827,4.183,0.2632,0.25285
-3.1315,-7.2979,0.1274,0.12659
-2.0955,-1.7907,-0.0179,0.53324
-0.2605,-0.6407,-2.3274,0.90866
-5.0585,0.5663,0.1443,0.26929
6.938,-0.7767,-0.0354,0.14048
3.1396,5.7871,-0.0337,0.23114
-1.5796,3.7144,-0.1352,0.29398
8.7078,4.8541,-0.0093,0.11156
-1.3623,7.8153,0.164,0.12651
1.5797,1.937,-0.8864,0.81306
6.2023,5.5233,0.0275,0.12718
4.1994,3.3144,0.1048,0.20096
-6.1096,1.3775,-0.7214,0.30748
-0.5659,-4.6346,-0.2124,0.4243
-5.0176,7.3275,0.1525,0.10614
-4.2032,-7.2246,0.0088,0.11406
-2.7655,-2.3627,0.2052,0.47019
-0.8055,-1.1702,-0.2724,0.89387
0.5806,1.921,-1.0649,0.45863
-1.0684,-0.8143,-1.5584,0.69526
1.0151,7.2003,-0.304,0.1513
1.6223,0.4381,0.7395,0.91237
-0.3817,-4.5509,-0.1771,0.32723
3.6279,-1.0043,0.1499,0.35577
-5.8315,-4.402,0.0316,0.12064
5.5026,-2.9519,0.6052,0.26806
3.4191,4.6229,0.4412,0.31282
0.8212,2.1052,-0.8095,0.54352
3.546,-5.8485,0.5462,0.23375
-0.9538,7.4928,0.6293,0.1795
0.1901,2.9414,-0.5196,0.24083
-1.6776,0.1929,-1.2104,0.65179
-0.5407,-0.8361,0.4878,0.72716
-5.3775,-3.8648,0.0548,0.15662
0.5223,-4.997,-0.3749,0.21665
4.6124,0.8389,0.9111,0.32525
-5.1672,-5.6207,0.4054,0.1722
7.4958,-1.4194,0.2233,0.0802
0.5681,6.2853,-0.0213,0.11984
-5.1018,-6.4096,0.343,0.1758
5.3958,-4.8144,0.003,0.19817
-9.6216,3.6589,0.0493,0.1065
1.0472,0.5676,0.8264,0.4784
5.8995,-2.5388,0.2347,0.14425
3.9487,0.8667,-0.0799,0.22225
0.8184,0.2409,-3.0462,0.91766
6.661,-2.0652,0.1528,0.11599
3.5528,4.9492,-0.032,0.14238
-0.612,3.0572,0.5799,0.40548
3.4256,-5.2419,0.0271,0.30005
-1.8296,7.6358,-0.2347,0.0815
-5.6923,2.3745,-0.7509,0.20808
0.4533,-4.4387,-0.3333,0.3458
5.0672,1.526,0.0462,0.30161
-4.6565,3.6892,0.0336,0.22178
8.8788,1.4094,-0.2147,0.13416
-5.1767,7.0338,-0.1768,0.13419
0.8963,-0.2682,-3.7221,0.55849
2.9956,-5.5473,0.2974,0.20914
-8.5215,4.068,-0.2047,0.1194
1.0083,2.2235,-0.0175,0.40477
-0.8286,-4.5251,0.1162,0.32376
3.0894,2.7827,0.5843,0.38322
-1.173,3.4753,-1.4364,0.42986
8.0503,2.2912,-0.0906,0.19895
3.2124,0.3389,-0.8374,0.30667
-4.4691,1.9189,0.3091,0.26022
0.8722,-6.3224,-0.4476,0.31245
-0.486,-0.239,0.5292,1.11605
-7.5398,-1.2833,-0.5726,0.18184
-0.3766,0.8003,0.5097,0.55429
3.3741,0.0039,0.4539,0.43261
-6.5458,-0.5341,1.1098,0.25828
2.4081,-5.2961,0.0194,0.30698
4.0454,1.3683,0.1209,0.33112
-4.3826,2.1834,-0.0288,0.33899
4.8177,-3.87,-0.2136,0.20483
-3.3312,7.3203,-0.3063,0.15486
-3.7514,-6.1935,0.3197,0.16201
7.315,1.1639,0.0656,0.1378
2.7593,-1.0485,-0.3478,0.47292
-1.3534,-7.6589,-0.0144,0.08259
3.7207,-4.5231,0.1699,0.19864
-2.8002,7.3108,-0.3051,0.17166
-6.7511,-2.5105,0.0314,0.18997
7.7374,5.0437,-0.4151,0.09533
-7.043,4.813,0.1515,0.13741
-1.1174,2.824,-0.6928,0.45026
5.1059,-4.6428,-0.2412,0.21656
3.4731,5.2355,-0.1685,0.35744
0.9941,2.4719,-0.2207,0.56876
-2.7633,-3.508,0.0342,0.33585
1.4555,6.1182,-0.3494,0.26658
-5.1631,0.5832,0.4704,0.24327
4.9554,8.2773,0.5147,0.09888
1.872,6.1743,-0.4029,0.14153
1.4073,-9.0587,-0.2978,0.07014
-2.7962,-1.6331,0.3192,0.40609
4.2977,2.7411,-0.3285,0.29447
-3.7261,2.4525,0.35,0.29899
4.7123,-4.9388,0.1289,0.15436
2.1145,-1.4403,-0.9721,0.60088
-5.8381,-3.3006,-0.2508,0.23486
7.6211,3.2924,-0.0021,0.10679
4.3807,1.3623,0.62,0.2203
-6.5548,-2.4119,0.0597,0.22949
-0.1583,1.0297,-1.737,1.05522
2.8814,5.1344,0.769,0.13809
0.0583,-0.1439,0.7215,0.79713
-3.0153,-0.2523,-0.1106,0.66409
4.8077,2.0105,1.1625,0.37009
1.0653,-8.7211,-0.0545,0.0565
3.7312,-5.1504,0.1653,0.33782
3.2227,-1.1092,0.1943,0.29905
1.2893,1.3591,1.112,0.41721
3.2364,-4.5397,-0.2517,0.23006
3.8884,3.9514,-0.3435,0.27917
-0.0962,3.0133,0.6256,0.34976
-2.3034,-3.1807,-0.1516,0.38323
-6.8797,4.7727,-0.0473,0.14071
-4.9305,-5.0226,0.3938,0.1907
-2.4009,0.0771,1.5114,0.60198
1.52,5.8185,-0.2944,0.19601
0.3918,-9.2305,0.0364,0.10234
3.2328,-4.733,0.4324,0.25151
3.2289,-1.719,0.8506,0.16526
-6.0556,0.7098,-0.0851,0.18338
8.2258,5.8591,0.2129,0.12306
-8.5745,3.1313,0.0091,0.0584
-1.5916,-9.1197,-0.5054,0.12683
4.933,-4.8559,-0.2144,0.20859
2.1061,-1.5086,1.1399,0.75662
-1.6883,3.3687,-0.4595,0.24995
7.6107,6.9,-0.2592,0.1022
-0.9207,7.5913,-0.0837,0.2187
-6.333,0.0751,-0.137,0.21824
1.0799,-5.4726,0.2574,0.47485
-3.6563,6.4422,0.3836,0.15763
-2.7023,-8.352,0.1697,0.10786
2.7312,-4.8843,-0.6082,0.20816
-4.4952,6.7535,-0.1464,0.11646
-4.4485,2.388,-0.3332,0.34318
2.238,-5.6456,0.292,0.20775
-2.894,7.2621,-0.4963,0.11834
-6.6373,-1.8391,0.5383,0.18428
6.8099,5.2756,0.079,0.08118
-6.1358,6.8936,0.0956,0.08918
2.4462,-9.9319,-0.3498,0.08161
6.4447,-2.5156,0.2634,0.22841
2.438,5.9867,-0.3664,0.19612
-5.6172,0.6241,0.376,0.21682
5.3946,-3.5904,-0.2094,0.22392
-2.2286,8.2848,-0.1252,0.15342
-0.1588,2.7812,0.119,0.66617
-2.1895,-0.4528,-0.1313,0.48211
0.8859,-0.859,-0.3307,0.51665
-1.1515,-8.1637,-0.112,0.15605
-2.8065,-0.4309,-0.6937,0.54669
0.0415,-1.7331,1.8773,0.77227
-3.5163,-7.9262,-0.0599,0.11739
5.2246,-4.8463,-0.3432,0.20975
-10.6155,2.9819,-0.4831,0.07275
-0.3831,-9.2132,0.2034,0.1321
4.6262,-3.6277,-0.1992,0.20596
4.0432,1.6306,0.8614,0.27735
-2.5589,-7.5517,-0.1072,0.12626
-2.041,-4.5697,0.5115,0.17937
4.1583,1.4377,0.8724,0.35615
-6.2865,0.0943,0.0475,0.25474
8.4086,2.0618,-0.1449,0.09682
2.6867,5.6931,-0.2529,0.08694
-6.0019,-2.003,-0.0925,0.13982
-1.6839,0.7628,0.9912,0.55021
-0.4703,-1.1707,1.1811,0.46645
0.2608,2.2435,-0.5448,0.53387
6.4101,-1.8453,0.0618,0.09337
-2.8764,7.538,0.1082,0.18948
-5.665,-0.3681,0.6661,0.34146
6.9999,1.4821,0.034,0.16229
-6.8236,5.5334,-0.0513,0.12122
-5.3743,-7.2791,-0.1047,0.12249
3.6508,-4.8212,0.2578,0.14956
2.5469,-1.4665,-0.3516,0.27958
-2.5446,3.6128,-0.6578,0.43445
8.3822,5.0085,-0.4398,0.11823
3.4881,0.1917,-0.2089,0.44186
-6.0344,-4.3298,0.1976,0.21043
5.0292,-4.7925,0.464,0.17387
0.4181,6.5852,-0.064,0.1904
-4.4008,2.1797,0.0747,0.23314
-2.3407,-0.6966,-0.3551,0.793
3.8553,2.6172,0.6843,0.26677
-0.3324,2.6318,-0.4021,0.43181
0.4344,-5.6567,-0.0299,0.32864
4.2176,1.4504,0.4151,0.35631
-5.3694,-5.6834,-0.3743,0.13687
8.3479,1.0729,0.0522,0.15376
3.1932,-0.2428,-0.531,0.52893
1.0452,1.4694,0.2866,0.39893
5.4374,-3.9988,0.0936,0.16054
-7.0012,5.2935,0.1433,0.08498
0.842,-9.2521,0.0411,0.0873
-2.2439,-3.8542,0.3568,0.24816
-8.064,4.7507,0.0713,0.0905
-0.0232,3.8128,0.5761,0.47955
-2.2779,-2.8308,0.0512,0.34353
3.7339,2.248,-1.0824,0.27723
-4.9806,3.1196,-0.3698,0.2755
5.332,7.6945,0.0481,0.10814
1.0319,6.7485,0.3668,0.29178
-4.8967,-6.5371,-0.0236,0.07296
3.4231,-5.4456,0.7487,0.21458
-1.6019,6.6768,0.1023,0.09633
-4.7812,1.994,0.4789,0.2685
-2.3032,-2.0402,0.0033,0.33005
3.9836,3.6562,0.0077,0.30104
-4.2179,-7.832,-0.1197,0.13418
7.8298,3.682,-0.3345,0.08022
2.6851,-1.4722,-1.0284,0.66899
-3.8522,-7.292,0.0518,0.17873
8.6355,2.2183,0.032,0.14338
4.484,4.073,-0.466,0.35019
2.1448,-9.7172,-0.1806,0.11279
7.2399,-0.2874,0.1186,0.12714
0.8652,-2.0463,-0.0565,0.58283
-1.7583,3.4274,0.3828,0.44633
-1.7999,1.4419,-0.1842,0.36977
-4.4553,6.7728,0.0769,0.10308
-2.4854,3.653,-0.4307,0.37445
8.1647,3.878,-0.1312,0.07225
-9.0554,4.0711,-0.3893,0.11499
-4.6456,2.1623,-0.4866,0.23196
7.1828,0.4971,-0.2581,0.19472
-1.7853,7.6585,-0.3697,0.18341
-5.4777,-1.9885,-0.0723,0.25185
-2.6833,-1.7133,0.65,0.4879
-2.6567,6.917,-0.2435,0.12367
-4.7178,1.2874,0.1635,0.33701
-1.1146,-3.9768,-0.2606,0.34626
1.644,-1.8549,1.5018,0.59626
-6.0242,-3.1973,-0.4244,0.26613
-3.2096,-0.6737,1.1152,0.3638
0.595,7.0853,-0.0106,0.19242
-3.3926,-7.3527,0.1503,0.10217
-2.3719,-1.733,-0.5328,0.69944
2.9662,4.4945,-0.1801,0.34322
-1.069,3.0075,-0.7097,0.45259
8.2492,-0.8229,-0.2343,0.13132
3.5566,4.2226,0.4217,0.2091
-0.7092,2.398,-0.9476,0.46396
9.3138,2.8742,0.2351,0.05469
-3.2949,7.7926,-0.0936,0.16568
0.5362,1.7339,-0.0086,0.49872
-1.0485,-3.1799,0.7344,0.32222
-9.7227,1.3655,0.3417,0.09449
0.3526,2.9583,0.1747,0.49437
6.177,-2.2296,0.4012,0.10792
-1.4549,7.0875,0.4809,0.12596
-6.0366,-4.1707,0.2802,0.10889
7.0035,5.6821,0.0743,0.12683
0.9777,-0.7605,0.0226,0.72016
-0.8677,3.3529,-0.0221,0.31761
2.0073,-5.7216,0.2296,0.16489
1.3206,6.3574,-0.5121,0.34185
-2.2684,3.2489,-0.0645,0.27083
-2.2865,-0.7767,0.3415,0.64622
-4.3949,7.2259,0.2207,0.09022
-3.6264,-7.0292,0.1971,0.12307
-2.6245,-0.873,1.0854,0.66807
2.5078,5.9822,-0.3028,0.13327
1.4287,1.2039,-0.7025,0.64835
-1.0241,-0.5701,-1.755,0.78165
3.6785,0.6185,0.3183,0.1992
-4.0005,3.0653,-0.0116,0.22313
5.4114,-4.2086,-0.0189,0.22691
3.2822,-0.9696,-0.1627,0.34405
-6.9452,-2.0681,0.1442,0.18895
7.5885,5.3989,-0.1374,0.11222
1.641,-2.0767,-0.9167,0.59779
-2.0457,3.6457,0.6377,0.38755
-1.0834,0.6784,0.7337,0.64733
-0.1097,-1.7962,0.5588,0.63279
-4.6036,1.8065,0.2912,0.20269
6.8616,6.1124,0.406,0.11373
0.2947,7.2642,-0.238,0.13683
-1.7275,4.1006,-0.7272,0.3291
3.0169,-5.2051,-0.1769,0.20555
3.0819,-0.2934,-0.1879,0.5113
1.2483,-10.2192,-0.0626,0.14188
-1.6134,-3.9484,0.4535,0.45732
-9.5983,4.2348,-0.0238,0.11568
-4.1971,2.954,0.0289,0.33009
-1.6805,0.024,-1.6603,0.58084
-6.2882,5.2519,-0.0915,0.16461
-6.9419,-4.565,0.5385,0.11151
7.1482,-1.8883,-0.1378,0.11537
-1.4778,7.0583,-0.3724,0.18064
-3.7243,2.8715,-1.1764,0.39402
-2.5305,-0.0226,0.63,0.59357
3.7979,3.3969,0.0128,0.25867
-2.2857,4.3955,0.4334,0.35782
6.6828,5.8574,0.4005,0.10493
-5.1041,6.117,0.021,0.12582
0.6826,2.3801,0.5081,0.63172
7.2902,6.9652,0.1061,0.14004
1.7602,6.5821,0.6195,0.29026
-1.9393,-8.541,-0.3811,0.13091
8.8836,-0.669,-0.2092,0.13406
-8.0586,3.9547,-0.1181,0.11275
0.2415,2.6878,-0.0031,0.54039
4.6773,-3.7372,-0.0517,0.20245
4.0092,-0.3358,0.7986,0.27241
-5.4508,0.6282,0.227,0.19972
-2.0783,-0.3758,0.5908,0.38444
2.8439,5.935,-0.3271,0.12806
-5.3741,-2.8686,-0.1445,0.0989
-0.6631,-0.1037,0.4625,0.84022
3.8455,4.6576,0.0521,0.24736
-1.0811,-9.4824,0.2777,0.12641
1.7935,-6.2099,0.7256,0.30471
-6.5892,4.4424,-0.3346,0.14639
-6.3884,-1.5466,0.0459,0.22385
7.3517,5.1973,0.3012,0.08362
1.5837,5.8609,-0.1257,0.24388
-2.8363,-8.905,-0.2961,0.1678
6.2951,6.7138,-0.1281,0.08598
3.4111,1.2784,0.1912,0.42148
-5.3902,-1.3551,0.0674,0.20803
4.1458,-5.1713,-0.0034,0.09876
0.0673,-0.7688,-1.1718,0.6007
-5.1447,-4.5744,0.2101,0.14404
5.2151,-4.8557,-0.1845,0.09847
0.3739,-1.2753,0.7101,0.77234
-4.2691,-6.6418,-0.0493,0.14205
6.1637,-4.002,0.205,0.17538
2.4387,-2.1248,1.2921,0.72991
-5.183,2.7329,0.9775,0.3057
-1.8894,-1.4466,-0.3425,0.80299
3.5599,4.1879,-0.3612,0.21681
1.0534,1.9417,0.9341,0.48268
7.9411,2.9158,0.5462,0.06229
3.0302,-0.8528,-0.4346,0.35194
0.281,-8.6565,0.0128,0.06711
2.038,-6.1017,0.2326,0.13754
-2.8498,8.2354,0.0616,0.11067
-6.736,1.2706,0.1816,0.17555
-1.0301,-3.8868,-0.2878,0.28923
4.7182,1.7626,0.0841,0.3071
1.8761,-0.0018,-0.9015,0.44215
-1.4295,-1.0091,0.4311,0.53751
0.2334,6.8711,-0.1002,0.21861
-5.6129,-2.8648,-0.3641,0.21724
6.1337,-3.5269,-0.1954,0.17476
0.9511,7.1914,0.1611,0.12864
1.7434,-8.497,-0.2161,0.1173
5.759,-3.5467,-0.2272,0.13636
1.2646,7.2946,0.2894,0.13985
-1.3199,2.1342,-1.3135,0.46642
-2.391,-1.1067,-0.2706,0.43554
3.7731,0.034,0.5143,0.61494
5.7992,-8.1032,-0.4464,0.08068
1.5293,-5.4153,-0.6005,0.29933
-7.809,5.1818,-0.0502,0.12408
-0.8285,3.5087,0.0211,0.27486
3.832,-5.6855,-0.2424,0.28927
-9.3679,3.197,-0.0507,0.12615
-4.9244,-5.9254,-0.242,0.16509
7.2759,-0.2114,0.452,0.1695
3,-0.1772,-0.487,0.66917
-1.5712,-8.1525,-0.2689,0.14378
5.5864,7.2253,-0.1845,0.05846
1.0939,6.1661,-0.1646,0.28738
-6.3621,-2.3781,0.088,0.14016
-2.788,-1.7639,0.2844,0.35373
4.8944,-0.3266,-0.996,0.17146
1.324,-10.5258,0.0056,0.09961
2.152,-4.6659,-0.6272,0.18049
4.3306,0.4455,0.3565,0.42311
2.9458,-8.3495,0.1207,0.08952
5.032,-4.7476,0.0008,0.15481
1.3145,6.5741,0.4907,0.21995
-0.4417,-8.5665,0.0503,0.07754
-0.6315,0.3718,-0.5954,0.81327
-5.8296,6.5472,-0.2627,0.12632
-5.1869,-5.0113,-0.3984,0.09448
2.0318,-5.222,0.0699,0.20992
0.3247,6.4703,0.1494,0.16229
-6.7698,-0.2536,-0.079,0.19699
-2.7239,-0.9721,-0.1748,0.38602
-2.2733,7.2857,-0.0338,0.17996
0.4808,1.2295,-0.8871,0.58632
-1.6464,-1.5345,-0.3253,0.45263
0.2093,6.8258,0.025,0.21912
-3.8775,-6.6088,0.577,0.09574
1.4653,-4.8086,-0.0405,0.1994
0.1355,-1.2328,-0.6463,0.69664
-6.2589,-4.7975,-0.3835,0.12933
2.5287,-5.0866,0.1259,0.19928
3.3171,-2.28,-0.1849,0.42175
-3.5205,2.5691,-0.2862,0.42549
6.9997,-1.0344,-0.444,0.17988
-5.6828,6.4794,-0.1926,0.09032
0.7787,0.3591,-0.1144,0.52287
6.3787,-3.1003,0.3551,0.1613
-8.283,5.4344,-0.1133,0.08563
-2.2346,3.6462,0.2488,0.44061
-2.2466,0.1571,-1.0098,0.28072
-0.5849,-1.3727,0.398,0.6502
-5.6374,0.3683,0.1036,0.21986
-2.3543,-0.0237,1.2181,0.45284
4.6043,1.1755,0.0934,0.43043
3.5617,-9.642,-0.215,0.08851
6.5412,-2.9546,-0.8743,0.16343
4.187,-0.8914,-0.5164,0.32067
-5.0369,-2.5592,0.0197,0.16936
-2.6599,-0.6725,-0.1098,0.50489
-7.997,3.5809,0.183,0.12259
-3.5734,3.0744,0.3244,0.30179
7.8717,-0.3344,-0.4225,0.11488
3.7331,3.8869,-0.7942,0.23291
2.0328,-9.5728,-0.4665,0.07869
-0.7102,0.3824,1.2727,1.02439
1.2288,-1.7348,0.6576,0.59222
3.6125,-8.9256,0.0515,0.10167
-0.936,0.1249,0.2972,0.93733
-1.7938,7.7403,-0.4449,0.20816
-4.5573,2.4209,0.4587,0.19467
6.3844,5.9565,-0.2223,0.11622
3.678,-1.3353,0.8043,0.23806
-5.7287,-3.321,-0.2882,0.17645
1.4892,-5.5519,-0.0939,0.32263
1.9619,-2.4111,0.6725,0.63245
-6.0994,-0.1043,-0.0175,0.19772
-0.7588,0.4275,-0.6035,0.42762
-5.5256,6.6727,0.1862,0.10089
2.7893,-9.0121,0.3666,0.06735
6.843,-3.2017,0.1057,0.14799
4.2026,2.3602,0.8175,0.4646
0.7258,-8.9972,-0.0693,0.08469
-1.4691,-5.0659,-0.4184,0.49246
2.503,-0.264,-0.4817,0.52841
-3.938,3.2373,0.3978,0.3481
-2.3157,-0.3588,-0.9375,0.52296
4.171,-0.9328,-0.0728,0.47281
-3.353,3.63,-0.1864,0.20513
7.5698,3.2388,0.1542,0.10744
-4.0454,6.2675,0.1352,0.11159
-6.3333,-2.4099,-0.0702,0.12121
7.8154,4.6501,0.471,0.09921
-4.173,6.6454,-0.1555,0.18544
-4.7545,1.9325,0.3675,0.32804
-2.5322,-2.0119,0.1347,0.5811
3.3944,1.6592,1.1943,0.34422
-1.9348,3.2286,-0.8151,0.42853
6.8582,4.6467,-0.2531,0.10522
-10.6585,0.8978,0.0461,0.06409
-5.1831,-5.741,-0.3805,0.13844
8.2484,-0.5704,-0.2896,0.12161
-8.9342,3.2305,0.1392,0.09
0.9786,1.1686,-0.645,0.65244
-0.4311,-4.8981,-0.8826,0.30915
-9.6059,3.2452,0.1335,0.08814
-3.05,4.0651,0.4565,0.31757
1.5181,-5.6379,0.7796,0.36721
-4.8393,6.9822,0.2503,0.13269
-3.3035,-7.3249,-0.1575,0.08859
-1.8028,-3.1041,0.1548,0.6855
3.9669,4.2647,-0.2709,0.23578
-3.8373,-7.1153,0.4566,0.05761
3.0703,-4.7711,0.4569,0.27355
-6.5431,4.9072,0.3087,0.07716
-0.5072,-9.0294,-0.2266,0.10337
-1.5965,0.9869,1.7078,0.5811
-0.0403,-1.71,0.4108,0.83873
-5.8176,-0.0443,-0.1568,0.23177
-1.6449,-2.1295,-0.5944,0.47187
-8.6825,4.0423,0.1963,0.12005
-3.6815,-6.7254,0.1278,0.17891
6.5108,6.2201,-0.253,0.09388
-8.3352,4.4383,0.0571,0.10775
0.4756,3.603,-1.3431,0.33085
-0.0371,-4.5655,0.1789,0.383
3.9078,0.6313,0.0584,0.48659
-4.617,2.442,-0.5824,0.1855
6.1306,-2.9927,-0.7897,0.19304
1.8917,5.9261,-0.049,0.24657
-5.6813,-4.6,0.0233,0.25111
3.9892,-5.4165,-0.033,0.29845
2.6771,-0.3451,-0.918,0.52045
-0.5014,2.6687,-0.4361,0.42806
6.9648,-2.515,-0.053,0.19208
4.4735,1.9478,0.259,0.38002
-5.0638,-6.0275,-0.1333,0.06708
6.7077,-5.3486,-0.3656,0.17735
3.8533,2.2645,0.8517,0.18233
1.2503,0.7211,0.1406,0.55653
7.7554,-0.842,0.3336,0.144
-6.2915,7.0464,-0.0692,0.14327
1.9404,1.6278,-0.9528,0.327
4.837,-5.3457,0.6912,0.22254
3.6311,-1.3714,1.1145,0.2726
-5.783,-1.1634,-0.2286,0.25187
7.3924,-2.4863,-0.0262,0.22643
1.4972,-2.0707,-0.9753,1.06643
-5.4925,0.4084,0.5824,0.18426
-1.9323,0.2166,1.8313,0.60212
-6.9916,5.2204,-0.1658,0.12982
-6.4521,-2.0842,0.2695,0.12509
8.0865,3.1474,0.0868,0.14253
1.4163,7.7616,-0.5929,0.23999
-1.891,-7.3356,0.1248,0.10045
8.9832,2.5107,0.33,0.16316
0.7411,-0.8997,0.7249,0.8847
-0.6935,2.7301,-1.541,0.69673
5.5412,-3.1995,-0.0548,0.13784
2.7271,-1.6684,0.5829,0.34874
-5.9279,-2.996,-0.0123,0.24159
-2.5245,-1.5307,-0.6029,0.62601
-6.2988,5.5483,0.0216,0.12875
-2.2009,3.8812,0.6692,0.32559
-0.0589,-5.9271,-0.0847,0.2172
-2.6803,6.7347,-0.1743,0.15553
-3.5807,3.0979,-0.5376,0.34108
8.2364,3.7438,0.4089,0.10601
-0.4101,-1.6479,-0.4684,0.71074
-2.2917,3.6617,-0.128,0.44426
7.1521,-1.1546,-0.1977,0.13416
-3.6389,7.2495,0.1273,0.13998
-4.9816,1.4863,0.5712,0.12361
7.853,-0.565,-0.012,0.16412
0.6776,-1.0889,0.0394,0.79387
-3.94,3.8305,0.3063,0.2677
-0.22,-6.0607,-0.4589,0.1568
1.2532,6.2534,0.0486,0.21502
-5.8628,1.2971,-0.2263,0.2545
1.5419,-5.9192,-0.0971,0.29075
-1.5834,7.3128,0.3318,0.15741
-1.2561,-8.2971,-0.04,0.1378
7.3978,5.6105,0.0808,0.13936
2.9494,5.313,0.5126,0.19526
-2.882,-7.6636,-0.0323,0.11911
4.8507,-4.4087,0.1148,0.20244
0.9303,6.6175,-0.2086,0.21849
-6.9781,-1.281,-0.2463,0.12496
7.4588,-1.749,0.0505,0.11093
1.8492,-2.1077,-0.2458,0.47645
-6.9983,-1.1456,-0.5838,0.23386
-1.5618,-0.0226,0.1685,0.70402
2.3361,-1.1796,-0.761,0.36241
-0.8301,3.0669,-1.3593,0.36521
8.1838,3.6801,-0.3349,0.0462
4.5962,1.3024,0.1409,0.40024
1.0057,-9.0578,0.2744,0.11731
-1.6742,0.9691,0.2272,0.64407
-5.1508,7.14,0.2136,0.13562
1.0339,1.4944,-2.3253,0.7866
-0.524,-4.1072,0.0219,0.21374
-5.7046,6.0671,-0.2225,0.13693
-6.3079,0.9039,0.6047,0.27424
-2.3165,-1.334,0.3165,0.55389
-4.3638,6.9119,-0.1285,0.14453
-5.9026,0.4207,0.7589,0.23621
-0.155,-4.0957,-1.0845,0.34004
-0.6849,6.2918,-0.1635,0.14289
-5.199,1.8641,0.2233,0.33266
-2.4309,-2.4322,-0.1828,0.45208
-5.4919,6.2048,0.509,0.12656
-1.225,2.16,1.9669,0.61779
5.4398,-3.0801,0.1335,0.14262
0.968,7.2436,0.103,0.18833
-5.5999,-0.0974,-0.1649,0.24901
8.4243,-0.0939,0.2973,0.11319
3.6884,0.232,0.9012,0.37437
0.9276,-8.6467,0.1628,0.15134
7.9034,2.596,0.0131,0.08534
2.9032,4.2735,-0.3396,0.31538
-4.1283,2.9588,0.3239,0.31747
6.1059,-4.053,-0.1569,0.1755
3.2614,0.1066,0.2318,0.49812
-2.9437,3.723,-0.4459,0.4142
-0.6015,0.2475,-1.1004,1.22149
-2.2061,6.702,-0.2802,0.21967
-5.2718,1.9308,-0.458,0.20223
-2.3407,-0.8365,0.0128,0.57662
0.9902,6.4782,-0.3268,0.11785
-6.1795,0.1871,0.3533,0.22362
8.1218,0.3359,0.4928,0.15571
0.2464,-2.1959,-0.3264,0.45938
-5.8217,1.2435,0.7444,0.22158
7.9121,2.5981,0.1503,0.10582
2.8213,-1.6438,-0.3298,0.52087
-5.256,-5.0972,0.4108,0.2453
5.9775,-4.4269,0.183,0.22688
3.5226,1.4448,0.3308,0.449
0.8093,-8.6974,-0.168,0.07189
4.4579,-4.7654,-0.2761,0.21799
2.5042,-0.6591,0.5492,0.49468
-2.3324,3.1793,0.3612,0.42098
-2.4752,-1.3949,0.1206,0.64999
4.0917,1.2362,-0.5231,0.32659
-5.309,-1.2245,-0.0199,0.31672
-2.6274,-1.8562,0.4964,0.34593
-7.3708,4.4493,-0.089,0.10744
-5.2082,-3.4192,0.5233,0.20345
-2.5326,-3.3324,-0.2276,0.46107
-5.2307,5.3114,0.2277,0.11722
-1.5385,4.1524,0.1417,0.42389
7.0787,-2.635,-0.2365,0.13671
0.625,-0.18,-0.6359,0.81539
-3.563,3.5332,-0.3038,0.27648
-3.3242,0.5046,0.6263,0.54918
-0.3254,7.4757,-0.2495,0.1798
-6.8187,0.3863,0.0766,0.18903
5.7788,-4.5406,-0.0622,0.15032
-0.6386,6.0146,0.0706,0.17913
-4.1653,2.3204,0.4432,0.21571
0.5662,-5.0128,-1.6564,0.28197
-10.0763,1.3246,-0.2955,0.09225
-4.8721,1.1563,0.7359,0.27298
-0.1171,-4.7084,-0.2962,0.35019
-1.365,6.8347,-0.4185,0.11569
-2.9447,2.8027,-0.8486,0.42835
8.96,1.4469,-0.3212,0.09405
0.8224,6.6533,0.4705,0.22203
-3.8789,-6.9842,0.1773,0.1278
1.4366,-4.8452,0.1426,0.31544
-2.3793,8.1578,0.1452,0.13945
0.8636,-9.0361,-0.0723,0.12593
8.4671,0.8829,-0.0195,0.1409
-0.5149,6.968,0.0828,0.10088
-0.8363,1.7209,0.794,0.64579
6.938,-3.2663,0.2355,0.09193
1.2931,-1.4972,0.3513,0.5349
-3.6132,2.657,-0.1697,0.39454
2.9855,-5.1331,0.3665,0.1904
2.1663,-1.7469,-1.2527,0.66173
-4.7576,-6.8044,-0.2247,0.14356
6.1038,-3.4574,0.1049,0.13838
4.0715,2.0312,0.1583,0.38985
3.1494,-8.6925,0.0748,0.11946
6.8102,-2.5223,0.0687,0.18128
-2.154,6.048,-0.0416,0.15426
-1.6269,-9.1502,-0.4852,0.08582
4.7424,-3.7854,-0.3989,0.20168
2.4978,5.0105,0.0999,0.25097
1.3241,0.5001,-2.8766,0.73197
-2.5688,-3.6941,-0.0024,0.25818
3.1649,-0.2513,-0.0158,0.6107
1.5605,0.5566,0.3261,0.71337
-2.3957,-2.1317,1.1062,0.50793
-6.1118,7.2715,0.5796,0.10801
-2.4654,3.0911,-0.373,0.43694
0.8998,-4.6293,-0.6503,0.30522
1.783,5.5065,0.2097,0.21119
3.3059,-9.585,0.1671,0.04234
9.0207,-0.6701,0.1128,0.13822
-2.2574,6.9709,0.2109,0.17718
-5.5917,-0.8477,-0.5191,0.24792
-0.7196,-5.1387,0.231,0.30328
5.254,0.3612,-0.2728,0.35813
-5.5713,-0.6351,-0.0499,0.26397
8.0167,1.8851,-0.3999,0.14981
-6.6506,6.0075,-0.1044,0.1091
-2.9522,2.3936,0.1178,0.54337
-1.6775,-3.9368,0.1142,0.36204
0.1729,-1.6023,-0.064,0.60981
1.0831,2.6911,-0.0775,0.45807
5.4778,-3.7886,-0.0822,0.1275
-3.8971,6.606,-0.1531,0.11989
-2.3901,2.7173,-0.3232,0.43642
1.2571,-6.4912,-0.163,0.21049
3.947,-0.9136,0.0394,0.45194
1.5652,2.2852,0.4158,0.74006
7.3179,0.579,-0.3229,0.08899
-1.8506,7.3438,-0.7182,0.17363
0.5359,-9.9875,0.322,0.08755
8.3521,-1.5311,-0.4218,0.15468
-5.1783,7.0685,0.121,0.13089
-6.1646,-1.8404,-0.2262,0.19794
8.1368,2.6021,-0.5509,0.09231
0.595,6.5518,-0.6736,0.25549
-5.4518,-5.0463,-0.0311,0.17586
-1.0126,-0.1896,-0.4595,0.81597
3.1644,4.219,1.0187,0.21036
-1.7521,-8.5455,0.0874,0.1309
-0.8671,-4.9533,0.0782,0.22829
-4.1564,8.1344,-0.1559,0.14051
-6.0635,-0.0016,0.4116,0.30661
-2.5937,-1.1529,0.2807,0.5057
3.8916,0.7846,-0.0276,0.45318
-0.658,3.0914,0.0456,0.42504
6.7597,-2.6824,0.0256,0.14499
-7.6247,4.5628,-0.1483,0.16764
-6.4978,-3.4231,0.1052,0.14395
-2.8202,-2.8795,0.5137,0.46978
3.6837,0.4266,0.4064,0.55889
-6.665,-2.6083,0.3678,0.17367
7.193,-1.7831,-0.4686,0.1315
-2.5951,7.4906,0.0351,0.12561
-4.8312,2.0315,0.0762,0.34414
8.3467,-0.486,0.5204,0.17141
-9.7353,2.4438,0.0881,0.07113
-5.3999,2.7302,-0.2623,0.17748
7.2742,6.3379,-0.1027,0.0936
-0.3404,-0.7242,0.6444,1.00141
-6.4291,-2.4406,0.1386,0.22889
2.2268,-5.8016,-0.0212,0.2575
3.6561,2.6392,-0.0862,0.32311
-3.1788,3.4627,0.2446,0.19751
8.9525,2.3604,0.4918,0.12269
3.7087,0.5542,-0.0251,0.19135
1.1888,2.0423,0.6464,0.37163
-0.9222,-4.7195,0.7113,0.24879
4.3624,0.1609,0.1306,0.5568
-5.2696,0.6676,-0.4847,0.33672
0.1241,-6.1633,-0.0242,0.34
-2.4546,8.1984,-0.0029,0.0913
0.7313,2.6306,-0.3626,0.58097
5.9026,-2.6357,-0.2741,0.24931
2.128,-1.7219,-0.1519,0.51428
-4.7244,1.5049,0.4953,0.28787
6.3256,-0.1582,0.2015,0.16526
3.845,1.6785,-0.227,0.41939
-4.5191,1.6231,0.0647,0.1903
-1.2893,-4.8588,0.5647,0.29364
-0.7144,7.4856,0.2799,0.17019
-5.6944,-2.8373,-0.1063,0.06638
-0.6702,-4.6683,-0.4946,0.40259
-5.8398,6.9484,0.0032,0.13391
-6.7881,-3.2403,-0.008,0.13538
3.0686,-4.9714,0.4561,0.19489
-4.5068,7.4813,-0.1573,0.13129
-1.0493,-9.6471,-0.2109,0.09781
5.4012,-4.3981,0.1638,0.22434
-0.4701,6.7891,0.1903,0.1654
-5.9765,-3.5989,0.0635,0.2407
-0.6908,0.0541,0.1525,0.79561
4.1676,3.7633,0.1564,0.18757
1.1111,-0.0057,-0.1992,0.80483
7.7091,-1.312,-0.082,0.10016
3.3493,0.1234,0.0254,0.57599
-1.0767,-9.8176,-0.2391,0.04544
6.9009,-0.4312,0.0079,0.16726
-0.2774,-1.4523,0.2158,0.94686
0.7694,-9.5248,-0.145,0.07671
-0.7912,0.0726,1.7523,1.02145
-0.655,6.809,-0.1435,0.05253
-1.2101,-9.114,0.147,0.11744
7.8247,2.1727,-0.0984,0.12741
-0.5533,7.3441,-0.2233,0.14854
-3.5289,-6.8333,-0.0014,0.13272
3.3273,-5.0618,-0.2042,0.19919
-2.8814,7.7391,0.0765,0.1943
0.361,-0.153,1.4712,0.83517
5.1088,-3.7667,-0.37,0.14755
-5.9709,6.2723,-0.3068,0.13018
-3.2049,-6.716,-0.3607,0.19055
-0.5859,-4.4135,0.1652,0.4145
1.8179,5.599,-0.1127,0.22629
-6.0711,1.2802,-0.0189,0.20088
-2.7139,-1.2308,-1.158,0.34816
0.9557,6.5498,-0.0914,0.14089
-0.6572,-8.8187,-0.1334,0.05835
0.5207,-5.2035,0.0515,0.18012
-0.1564,-0.6335,1.4146,1.02758
-2.5758,3.4737,1.0563,0.46204
8.9664,0.7162,0.031,0.13187
4.4922,-0.6338,-0.019,0.26136
-5.5293,-3.8928,0.1598,0.12822
-0.6395,0.0527,0.0466,0.45919
-7.7496,3.5162,-0.0129,0.07201
0.4255,1.3404,-0.4581,0.62181
5.9983,7.0999,-0.2337,0.08449
-7.0677,4.1813,0.5709,0.14576
-7.0392,-2.5072,0.9443,0.17813
7.2818,5.6408,0.3547,0.08876
-2.6701,7.2898,0.3272,0.1709
-5.0681,2.0193,0.0831,0.29925
5.5402,-3.9832,0.0427,0.19016
-2.6382,8.7013,0.0862,0.15168
0.7446,-9.367,0.2977,0.11029
-1.0322,0.1595,0.0433,0.89951
-2.6255,8.0823,-0.3333,0.16056
0.3111,-8.2879,-0.4269,0.0802
-0.6804,-4.8285,-0.5184,0.3332
3.2383,5.0246,0.1116,0.22272
-5.2298,-6.0194,0.3847,0.20501
6.4129,-2.536,0.3627,0.22599
-1.8882,7.3008,-0.1118,0.15612
-2.795,3.1341,0.7265,0.30471
1.8787,-5.3986,-0.2214,0.25715
-5.9822,6.8402,0.0676,0.10628
-0.9564,2.4996,-0.3639,0.32401
1.801,-5.4838,0.3063,0.20024
-0.2301,-1.1788,-0.7025,0.75131
-5.0513,-5.7395,0.0888,0.25869
6.6272,-1.9114,-0.848,0.14783
-4.68,7.1655,0.175,0.10465
-5.9274,-2.4157,-0.0332,0.18726
-2.475,-0.5049,-0.317,0.56214
1.2601,-2.5625,0.4221,0.38433
0.5834,-8.918,0.2166,0.08203
0.0395,-5.2581,0.3786,0.28159
4.3907,2.608,-0.1661,0.16155
-5.4673,-4.8204,0.0268,0.10559
1.2238,-5.4522,0.3724,0.26878
3.0035,4.9034,-0.0868,0.20644
-5.9217,-3.1042,0.2281,0.22547
-3.0625,-0.8279,0.4743,0.49414
3.6359,4.6726,0.2791,0.14874
-4.685,1.2275,0.2513,0.20817
6.8348,-2.2209,-0.4222,0.13879
0.3937,-1.9649,-1.7725,0.73387
2.1587,-9.5162,-0.1933,0.09248
7.8872,3.32,0.2563,0.15955
3.3516,4.7747,-0.3478,0.25545
-2.7873,2.9682,0.4812,0.29397
8.2218,3.7135,0.3673,0.13329
3.3849,-1.0597,0.5301,0.48712
0.5568,-0.2713,4.1507,0.88553
5.4744,-3.5225,0.3101,0.21049
-5.4369,6.4665,-0.25,0.05667
1.2775,2.2806,1.1763,0.58613
-1.626,-3.9176,0.1126,0.32509
-8.1455,4.5045,-0.1649,0.07513
0.3617,1.5643,-0.2673,0.67631
7.4733,-2.6918,0.2366,0.16156
3.8621,2.1896,-0.1326,0.36383
-5.7759,-1.8744,-0.0386,0.22037
-1.5931,-3.8609,-0.0203,0.36062
4.3714,4.3532,0.0392,0.28349
0.6493,0.5582,1.066,1.03044
7.9126,2.4591,-0.0463,0.09502
0.914,-1.4951,0.4778,0.52196
-6.1615,-0.9803,0.2712,0.28941
7.5912,-1.9842,-0.0447,0.12793
3.7055,-0.2582,1.1707,0.48075
-2.024,3.1329,0.6047,0.395
7.9604,-0.5793,0.257,0.11262
-9.1047,2.3097,-0.5341,0.09215
1.3835,2.9775,-0.5587,0.39918
-0.3736,-4.995,-0.7065,0.25066
-0.4516,7.3679,0.0738,0.11441
-4.2494,-5.3977,0.1469,0.12899
1.6272,-5.5434,-0.1397,0.24703
-1.6769,6.6679,0.3254,0.07381
-5.6766,0.6634,-0.1617,0.21356
-0.2413,-4.5903,0.5037,0.27637
1.733,5.9903,-0.3472,0.13256
-6.132,-4.0615,0.1015,0.14671
-2.3736,-0.0919,-0.7901,0.4797
-9.629,1.901,-0.282,0.14574
1.9272,0.6754,-0.8647,0.44099
6.4395,-4.4356,0.0603,0.22886
-8.4114,3.6808,-0.0311,0.13027
-6.1228,0.4377,-0.2327,0.16297
5.8589,-4.2012,0.1758,0.25836
0.2132,-0.9853,1.574,0.68563
-1.679,3.9616,-0.0436,0.31316
-1.3002,0.5915,0.707,0.82017
-5.7681,7.1051,-0.0496,0.08782
-1.1376,3.662,-0.0323,0.36191
-2.4332,-3.4284,-0.9176,0.3674
-0.7321,6.4223,-0.2498,0.18545
0.6656,1.8399,0.3548,0.61246
7.694,-2.0217,-0.0724,0.15686
1.2946,-2.5849,-0.2762,0.23167
-3.1558,2.8154,-0.4255,0.383
5.6206,7.1953,0.4459,0.10586
-8.9808,2.8718,0.0942,0.09185
-0.267,3.0513,0.4179,0.49219
2.3402,-4.904,-0.176,0.21916
0.4791,-1.9674,-1.4119,0.43526
-5.0849,-0.7277,0.3826,0.22803
8.3128,0.4083,0.4804,0.15651
-6.7852,5.473,0.0137,0.08858
-3.0224,3.8637,-0.4379,0.18746
5.3406,-4.0555,-0.2559,0.21884
-8.3366,4.7333,-0.1545,0.11017
-4.2269,3.2351,1.2137,0.27282
-1.0356,0.5522,0.0903,0.63175
2.558,0.2815,-0.501,0.4332
-5.7963,-2.2182,0.0204,0.2124
7.5986,5.7988,-0.0771,0.06547
-4.2108,6.8352,-0.4519,0.09763
-4.5939,-6.3262,-0.2995,0.15147
8.6137,0.0688,0.2876,0.12491
-6.6998,6.4196,0.3341,0.09519
-4.4943,2.1121,-0.0634,0.262
5.209,-4.7952,0.2129,0.20672
3.6107,1.5354,-0.0636,0.40407
-6.9874,-2.1585,0.5343,0.19787
5.6672,-3.823,-0.347,0.27691
-6.7622,6.4717,0.3954,0.12612
-5.6258,0.35,0.3252,0.27809
4.6783,-5.0281,0.3385,0.20972
-4.0646,6.9715,-0.1393,0.14149
1.0482,0.8212,0.5212,0.81927
8.5547,1.5916,-0.1176,0.12848
3.2943,-2.2864,0.4154,0.3032
-0.2771,2.3441,-0.4838,0.55383
-1.8537,-3.0908,-0.1825,0.4539
3.5893,4.9322,0.1387,0.18896
-3.5487,-7.4054,0.0609,0.10262
4.3888,-5.4843,-0.0734,0.18224
4.4529,0.853,0.9222,0.17639
0.3773,1.7064,-1.5955,0.54636
-1.7813,-0.6219,1.1505,0.58506
2.8486,-0.9645,0.5772,0.70098
-4.2729,-4.7443,-0.1784,0.13431
8.4051,0.6821,0.2771,0.12768
3.5887,-1.0008,-0.3345,0.44266
-5.5572,-0.5026,-0.3749,0.20758
-0.2421,-4.4718,-0.2156,0.0996
0.407,-0.3204,-0.9591,0.76965
1.223,0.3811,-0.9935,0.76872
9.0244,1.2648,0.1463,0.12327
-4.374,6.5055,0.1955,0.12239
0.6952,-8.8353,0.197,0.12317
-1.742,-0.0025,-0.6095,0.56436
-7.4837,4.5125,0.1069,0.05725
-6.7205,-1.4142,0.2636,0.11167
8.2173,-0.4109,0.0222,0.13448
-7.0629,4.3665,0.2111,0.06345
0.9241,0.4267,-0.1895,0.93336
3.9254,-4.601,-1.0741,0.23281
-7.4064,3.1323,-0.3177,0.1242
1.0301,1.2254,0.0331,0.58228
7.4245,-1.5377,0.5055,0.11433
-0.8796,7.5415,0.2526,0.14176
2.9895,-9.1139,-0.0807,0.12218
-1.5486,0.5126,0.6111,0.81055
4.3231,0.1614,-0.0476,0.46784
-6.1391,-3.1277,-0.1672,0.2272
7.6897,1.3376,-0.4458,0.15295
-4.1977,6.8822,0.3896,0.10957
-0.4392,-10.0419,0.1176,0.07929
8.7425,4.5072,-0.0946,0.14762
1.4119,7.0517,0.127,0.13748
-4.7081,-7.0008,-0.2033,0.15806
4.3151,-5.8991,0.5146,0.17187
1.2539,6.2749,-0.4624,0.16808
-4.5222,3.6493,0.2248,0.22715
4.8607,-4.9176,0.3352,0.20735
3.1486,4.4716,0.0276,0.16982
-6.11,-4.4209,0.1206,0.22102
-1.8483,-2.7337,-0.0806,0.2212
-2.8105,7.5678,-0.1134,0.11876
1.3008,1.7385,-0.369,0.2705
8.3947,0.8809,0.21,0.08815
4.8754,0.1213,-0.6726,0.19492
-2.7054,-7.785,-0.1303,0.10031
-2.1231,-0.4654,0.7916,0.58108
-0.0548,6.9019,0.3659,0.13601
-6.3486,-2.0229,0.2657,0.22153
7.9958,3.5398,0.3174,0.1212
1.6108,6.3141,-0.0781,0.19924
0.7814,2.7223,-0.3962,0.33484
-1.7843,-3.8358,-0.3247,0.42024
2.0997,4.9869,0.5675,0.23851
0.9856,0.2841,0.7197,1.28853
-1.6679,-4.3357,0.4873,0.26011
-1.3934,7.0641,-0.2046,0.04819
1.9441,-9.6295,-0.0768,0.09026
8.6266,2.3004,-0.3367,0.10911
4.1922,4.683,0.2337,0.20392
-4.7869,2.8022,-0.2842,0.1819
7.5681,4.9079,-0.0547,0.09622
4.1631,2.4035,-0.8501,0.20839
-2.2478,-8.3259,-0.0386,0.11886
8.2531,2.6956,0.0252,0.0936
-6.3244,5.4267,-0.1416,0.12976
1.5175,0.6637,0.8249,0.5177
-2.4806,-0.2137,0.2417,0.44488
3.3072,1.487,0.8394,0.36187
-6.1473,-0.8998,0.273,0.21807
6.6897,-2.6592,0.0063,0.24707
1.2331,6.5748,-0.0092,0.17006
0.2973,3.4948,0.4132,0.488
-0.408,-4.4032,-0.0954,0.32129
-7.0804,4.4333,-0.1719,0.09793
-1.0446,3.4323,-0.0843,0.24236
-1.7337,-4.0406,-0.1086,0.37569
2.1149,6.9748,-0.2044,0.17377
-4.316,-6.7008,0.3542,0.11839
